ncols         60
nrows         51
xllcorner     -25490.397894
yllcorner     3368132.299141
cellsize      90
NODATA_value  -9999
108 105 96 83 74 69 68 66 78 91 104 103 93 80 80 86 91 94 97 97 94 86 75 66 63 63 70 80 91 99 104 105 107 108 112 114 112 108 108 104 93 84 78 77 81 90 97 103 106 103 94 85 79 80 95 107 110 105 97 108 
99 94 87 77 71 72 71 74 83 94 103 102 92 90 94 100 104 106 107 106 103 95 82 72 67 65 64 67 74 80 85 87 93 99 108 113 113 109 108 104 93 89 89 84 81 84 92 103 110 110 104 97 90 85 89 108 112 110 104 109 
95 89 82 72 72 72 76 82 90 98 103 102 99 101 105 109 110 111 111 111 108 101 90 79 73 70 67 66 66 69 70 73 76 92 106 112 113 110 109 105 97 97 99 96 91 87 90 100 113 116 114 110 104 97 90 103 112 115 114 114 
98 92 83 75 72 74 80 90 98 102 104 105 105 106 109 111 110 110 110 111 109 105 97 89 81 76 71 69 67 67 69 69 73 87 103 109 109 109 111 108 102 103 106 106 103 98 94 99 112 119 120 118 114 106 95 103 114 119 119 118 
103 96 88 84 79 81 88 99 104 107 107 108 108 108 108 107 104 101 100 101 102 103 100 96 90 84 77 73 71 70 69 72 73 83 95 98 104 109 113 111 109 109 110 113 112 106 98 100 111 118 120 121 118 111 97 109 115 120 120 120 
105 102 98 95 91 93 98 105 109 110 110 110 110 109 104 99 91 85 83 86 92 98 102 103 100 95 87 80 77 76 74 72 75 78 83 92 102 110 114 114 115 115 115 116 115 110 102 100 110 117 118 118 118 112 105 113 117 121 121 120 
108 107 105 103 101 102 103 107 109 110 109 110 109 106 98 87 76 71 71 76 85 94 102 107 106 102 96 91 87 85 83 80 82 83 87 93 104 111 114 115 117 117 117 116 114 111 106 104 107 111 111 111 115 115 116 119 119 120 120 120 
112 109 106 104 104 101 101 101 103 105 108 110 106 98 86 73 67 68 70 73 79 90 101 105 106 105 103 100 97 92 90 91 94 96 99 101 106 110 112 112 112 113 113 114 113 111 109 106 103 102 99 103 113 116 119 121 118 116 116 116 
113 109 105 101 97 92 89 89 94 101 108 109 102 89 74 65 65 68 71 74 78 88 100 106 108 109 109 107 102 95 94 98 104 106 108 109 110 112 111 108 104 102 103 105 106 106 105 101 93 87 88 101 112 116 117 120 116 108 104 103 
112 107 100 94 86 79 76 81 89 101 109 108 96 78 66 64 65 67 69 73 79 90 102 109 113 113 113 110 102 93 90 98 105 110 109 111 113 112 109 103 94 86 85 87 90 91 91 87 81 79 87 102 112 117 117 120 116 104 93 90 
110 104 95 84 75 72 71 78 93 103 108 106 92 72 64 63 65 68 72 77 85 96 104 110 114 114 113 107 96 84 80 90 99 103 104 110 112 107 99 92 85 78 74 75 76 78 80 79 79 84 95 106 114 119 119 121 117 105 93 88 
109 103 90 76 70 70 71 81 98 106 107 101 86 69 63 63 66 72 81 89 95 103 108 111 113 114 111 103 88 73 74 81 89 94 103 110 109 101 85 79 78 75 72 72 72 73 75 79 88 99 107 113 116 118 119 122 118 108 98 91 
107 102 89 73 70 70 72 86 100 106 105 95 78 65 62 62 67 79 92 100 104 108 110 110 112 112 109 99 81 69 71 76 85 95 104 109 105 92 76 73 73 72 72 72 73 75 80 90 103 112 116 118 119 118 119 121 119 109 99 92 
99 96 87 74 69 69 73 88 100 103 98 86 69 62 61 62 69 82 94 100 103 103 103 104 105 105 102 92 77 68 69 74 84 95 101 102 96 83 71 70 70 71 72 74 78 85 92 102 112 119 120 119 118 117 119 120 116 106 95 87 
85 87 84 75 69 69 72 86 94 93 86 73 63 60 60 61 66 75 83 86 86 86 88 90 91 92 91 85 75 66 66 69 77 85 89 89 85 76 68 66 68 71 76 82 88 95 101 108 117 120 120 118 116 116 118 118 112 101 89 81 
75 80 80 75 68 68 71 80 85 79 70 62 60 60 60 61 63 66 68 69 69 69 71 74 76 77 79 77 70 64 64 65 68 72 75 77 76 70 66 67 72 77 83 89 94 98 103 109 117 120 119 117 116 115 116 116 109 96 84 79 
69 73 76 72 67 66 69 74 74 67 61 59 60 60 61 61 62 62 62 62 62 62 63 64 65 66 67 68 66 63 63 63 63 64 67 69 69 66 65 70 77 84 88 89 90 92 97 103 111 116 118 116 117 115 112 112 105 94 85 79 
65 69 72 71 66 65 67 70 65 61 59 59 60 62 63 63 63 62 62 62 62 62 62 62 62 62 62 63 63 63 63 65 65 64 64 64 65 64 64 68 75 81 83 81 81 83 87 94 105 113 117 117 118 116 109 104 98 91 85 79 
64 66 70 69 65 64 65 66 61 59 59 60 61 64 65 65 65 64 63 63 63 63 63 63 63 63 62 62 62 63 64 67 69 69 65 64 64 64 64 64 67 72 74 74 74 77 80 89 104 112 116 117 117 114 106 99 93 87 81 78 
62 65 66 65 63 63 64 62 59 59 59 62 65 68 69 68 68 67 67 67 66 65 65 66 66 66 65 65 63 63 64 70 75 75 69 65 64 64 64 64 64 65 67 69 72 76 83 94 106 113 116 114 112 108 101 96 91 85 79 78 
60 62 63 62 62 61 62 60 59 59 61 65 69 73 74 72 71 71 72 71 69 68 68 69 71 74 75 73 68 65 63 73 80 79 72 66 64 64 64 67 67 66 66 67 70 77 88 101 112 116 115 110 105 99 93 90 88 84 80 81 
58 59 60 60 60 60 60 59 59 59 62 67 72 77 78 75 74 75 77 75 72 70 72 76 81 85 87 82 72 66 64 75 83 81 74 67 64 64 69 77 78 75 71 69 69 75 86 103 112 116 115 109 101 93 87 86 85 82 84 89 
57 57 58 57.5 57.5 57.5 57.8 58 59 59 61 65 72 77 79 78 78 81 81 79 76 75 80 87 91 93 91 84 73 67 65 78 85 82 74 67 65 64 74 86 89 85 78 72 70 72 80 94 107 113 113 108 101 94 92 92 91 92 95 101 
57 57 57 58 59 59 61 61 59 59 60 63 69 75 79 80 82 85 85 83 82 84 91 97 99 96 88 78 70 67 69 81 86 83 74 68 67 66 76 90 96 93 86 78 72 70 74 84 99 108 111 109 105 103 102 106 106 109 111 112 
59 59 61 62 63 66 70 69 63 60 59 62 65 72 78 82 85 88 89 89 89 93 100 105 104 97 84 72 68 69 74 84 86 82 74 70 69 68 74 88 97 98 93 84 76 71 72 78 88 99 106 107 107 110 111 112 114 117 117 117 
62 66 73 76 76 78 84 82 73 62 60 61 63 68 77 85 90 94 95 96 97 100 105 109 107 99 84 70 68 72 77 86 86 79 75 73 70 68 72 84 95 98 95 87 79 74 73 76 80 88 95 98 105 110 115 114 115 116 116 114 
65 72 85 93 92 92 95 94 84 68 63 61 63 67 79 88 94 98 101 103 105 107 109 110 108 101 88 74 69 73 77 85 85 80 78 78 72 69 72 81 90 93 93 89 83 78 76 77 78 80 84 88 97 107 113 113 113 113 110 105 
66 74 91 102 104 102 103 101 92 76 65 63 63 68 78 88 94 97 100 104 108 110 111 111 110 104 94 80 71 74 76 83 83 81 83 82 77 70 72 79 86 91 93 92 89 85 82 79 78 79 80 83 88 100 109 112 109 107 103 98 
66 75 93 105 107 107 107 105 97 80 67 63 63 67 74 79 83 86 90 97 103 108 109 109 108 104 94 82 73 76 77 83 84 85 88 86 79 71 73 79 86 90 94 96 97 96 91 85 80 79 80 84 87 96 109 113 110 106 103 101 
67 76 93 106 107 108 110 108 100 83 68 63 63 65 68 69 70 72 78 85 92 96 97 97 97 96 91 85 77 79 82 84 87 90 90 87 78 74 74 79 85 90 94 100 104 106 102 96 87 81 81 88 91 103 112 116 115 114 112 106 
68 78 96 107 108 109 110 109 102 85 68 63 63 64 65 65 67 68 71 75 79 81 81 81 85 93 95 93 90 88 91 91 91 93 92 87 78 78 78 80 85 90 96 102 108 112 112 107 98 89 85 90 97 109 115 117 118 118 116 110 
72 84 99 107 108 108 108 107 101 84 67 64 63 65 67 69 72 74 73 72 72 73 74 79 89 100 108 108 107 103 103 100 98 96 94 88 83 81 80 80 84 90 95 100 107 113 117 114 108 98 93 94 102 111 117 118 119 118 116 111 
84 93 102 108 106 103 102 102 96 80 67 64 64 67 73 80 85 89 86 78 73 73 79 92 105 111 116 117 117 115 111 109 107 101 97 92 90 85 81 80 82 86 89 93 99 107 113 113 111 106 104 103 108 113 118 118 116 114 112 109 
100 102 107 108 106 100 96 93 87 74 67 64 64 72 84 95 101 103 100 89 77 75 88 103 112 118 119 119 120 119 117 115 113 109 102 97 92 88 84 81 80 81 83 85 88 94 101 106 109 112 114 114 117 117 120 119 112 107 103 102 
109 110 111 110 109 105 97 90 82 71 66 65 66 75 92 104 109 110 106 98 86 81 92 105 115 118 118 118 119 120 119 118 116 113 105 98 92 89 89 86 83 81 81 81 82 84 88 97 107 116 120 120 120 121 121 119 113 100 93 92 
111 112 112 112 111 108 104 97 83 71 66 65 66 76 94 106 111 112 111 105 98 94 97 105 111 114 114 114 116 118 119 119 119 116 105 94 88 89 94 96 93 86 83 83 83 83 85 92 106 118 122 121 121 120 119 118 112 100 88 87 
109 110 110 110 111 110 108 101 91 77 67 66 67 78 95 107 112 113 113 111 108 106 107 107 108 106 103 103 106 112 115 117 117 112 100 87 81 89 100 104 101 96 93 92 91 89 91 97 107 118 123 122 121 119 118 117 113 104 95 92 
105 104 104 109 112 112 110 106 95 79 69 66 68 81 96 107 112 112 111 110 110 110 112 112 109 101 92 87 90 97 104 108 110 103 91 80 77 90 103 109 108 104 104 106 107 105 104 107 114 119 122 121 119 118 119 118 115 111 106 102 
100 95 100 109 111 111 111 108 96 78 69 66 69 80 94 106 111 111 108 104 104 105 109 112 110 100 86 76 77 81 91 98 101 95 85 77 75 86 99 110 111 109 111 115 116 114 113 116 119 121 121 119 117 118 118 117 116 113 109 102 
94 89 97 104 107 110 111 109 96 78 70 66 68 75 89 101 108 107 102 96 93 97 105 112 112 101 84 74 73 75 81 89 93 92 85 77 72 80 95 106 108 107 109 115 117 113 112 115 118 120 119 117 115 116 115 112 110 106 102 94 
89 85 92 96 99 102 106 106 96 81 71 67 67 72 82 92 101 101 94 86 84 91 104 112 112 102 87 74 70 72 76 82 88 90 84 76 70 77 90 99 99 96 100 109 114 110 103 104 108 112 113 113 111 112 109 105 100 95 92 90 
84 79 83 83 83 90 97 104 99 88 75 70 68 70 75 83 91 91 85 80 82 92 105 112 111 104 93 77 69 68 71 76 86 87 80 73 68 76 87 92 89 84 89 103 112 109 97 91 94 96 98 99 104 107 105 99 96 96 96 99 
80 72 70 70 72 82 96 105 103 97 87 75 70 71 72 74 78 79 78 79 85 97 107 112 112 107 97 82 70 65 66 76 87 87 79 71 67 74 82 84 79 77 82 96 110 110 97 84 81 81 80 85 95 99 101 100 108 110 110 105 
76 68 61 65 78 94 100 107 108 104 98 87 76 72 71 71 72 75 77 81 90 101 109 112 111 108 100 83 67 62 67 79 88 89 79 71 66 71 75 74 73 73 79 93 108 109 97 83 77 77 77 80 85 93 98 104 114 117 116 110 
72 64 61 69 85 94 101 105 108 108 104 99 92 81 75 74 74 76 79 85 93 100 107 111 110 105 97 80 65 60 68 82 90 89 80 69 65 69 72 72 73 77 84 93 102 101 92 82 78 77 78 82 87 88 90 104 112 115 116 110 
66 61 61 71 80 88 92 98 103 107 109 107 102 97 88 82 81 81 83 84 87 96 103 109 108 101 90 73 64 60 69 82 86 83 74 66 65 71 75 75 77 84 91 96 98 95 89 85 81 77 78 85 91 93 88 101 110 113 113 110 
60 57 62 68 72 75 82 92 100 106 109 109 108 105 101 98 95 91 87 81 80 89 98 105 105 97 86 71 63 60 66 78 81 75 67 62 68 75 78 81 86 92 97 99 98 94 93 90 84 77 79 86 94 94 92 101 110 110 109 108 
57 57 61 65 68 72 80 93 101 105 107 109 110 109 107 106 104 97 88 79 76 81 90 100 101 96 85 71 64 60 64 74 75 67 61 65 74 80 85 91 99 104 102 99 96 93 91 88 83 77 79 84 87 88 90 100 108 110 108 105 
57 60 61 64 68 73 87 94 99 101 103 108 109 108 108 107 104 98 87 76 73 75 82 93 98 97 86 72 63 58 63 69 68 62 60 69 79 86 90 96 102 104 102 97 92 88 86 84 81 76 76 78 79 80 90 96 104 106 106 100 
59 63 66 70 78 88 90 93 93 94 99 106 108 104 102 101 99 94 87 77 71 70 75 84 91 92 85 74 63 57 60 63 61 58 65 77 85 88 90 93 94 94 94 92 87 82 79 79 79 75 72 72 76 81 88 95 96 99 98 95 
60 67 74 81 89 95 92 88 82 83 92 100 102 97 91 90 90 91 89 83 76 70 69 73 80 84 81 74 64 58 57 58 58 63 72 83 90 89 86 85 85 86 87 86 82 78 74 73 73 71 70 72 77 82 88 93 91 92 91 99 
